ply
format ascii 1.0
element vertex 1545
property float x
property float y
property float z
end_header
254234.973 2821081.336 151.170
254236.973 2821081.336 126.730
254236.973 2821081.336 128.730
254236.973 2821081.336 130.730
254236.973 2821081.336 132.730
254236.973 2821081.336 134.730
254236.973 2821081.336 136.730
254236.973 2821081.336 138.730
254236.973 2821081.336 140.730
254236.973 2821081.336 142.730
254236.973 2821081.336 144.730
254236.973 2821081.336 146.730
254236.973 2821081.336 148.730
254238.973 2821081.336 126.297
254238.973 2821081.336 128.297
254238.973 2821081.336 130.297
254238.973 2821081.336 132.297
254238.973 2821081.336 134.297
254238.973 2821081.336 136.297
254238.973 2821081.336 138.297
254238.973 2821081.336 140.297
254238.973 2821081.336 142.297
254238.973 2821081.336 144.297
254238.973 2821081.336 146.297
254238.973 2821081.336 148.297
254240.973 2821081.336 127.783
254240.973 2821081.336 129.783
254240.973 2821081.336 131.783
254240.973 2821081.336 133.783
254240.973 2821081.336 135.783
254240.973 2821081.336 137.783
254240.973 2821081.336 139.783
254240.973 2821081.336 141.783
254240.973 2821081.336 143.783
254240.973 2821081.336 145.783
254240.973 2821081.336 147.783
254242.973 2821081.336 127.229
254242.973 2821081.336 129.229
254242.973 2821081.336 131.229
254242.973 2821081.336 133.229
254242.973 2821081.336 135.229
254242.973 2821081.336 137.229
254242.973 2821081.336 139.229
254242.973 2821081.336 141.229
254242.973 2821081.336 143.229
254242.973 2821081.336 145.229
254242.973 2821081.336 147.229
254244.973 2821081.336 130.681
254244.973 2821081.336 132.681
254244.973 2821081.336 134.681
254244.973 2821081.336 136.681
254244.973 2821081.336 138.681
254244.973 2821081.336 140.681
254244.973 2821081.336 142.681
254244.973 2821081.336 144.681
254244.973 2821081.336 146.681
254246.973 2821081.336 136.141
254246.973 2821081.336 138.141
254246.973 2821081.336 140.141
254246.973 2821081.336 142.141
254246.973 2821081.336 144.141
254246.973 2821081.336 146.141
254248.973 2821081.336 143.627
254248.973 2821081.336 145.627
254250.973 2821081.336 145.054
254192.973 2821079.336 133.159
254192.973 2821079.336 135.159
254192.973 2821079.336 137.159
254192.973 2821079.336 139.159
254192.973 2821079.336 141.159
254192.973 2821079.336 143.159
254192.973 2821079.336 145.159
254192.973 2821079.336 147.159
254192.973 2821079.336 149.159
254194.973 2821079.336 133.689
254194.973 2821079.336 135.689
254194.973 2821079.336 137.689
254194.973 2821079.336 139.689
254194.973 2821079.336 141.689
254194.973 2821079.336 143.689
254194.973 2821079.336 145.689
254194.973 2821079.336 147.689
254194.973 2821079.336 149.689
254196.973 2821079.336 134.175
254196.973 2821079.336 136.175
254196.973 2821079.336 138.175
254196.973 2821079.336 140.175
254196.973 2821079.336 142.175
254196.973 2821079.336 144.175
254196.973 2821079.336 146.175
254196.973 2821079.336 148.175
254196.973 2821079.336 150.175
254198.973 2821079.336 132.626
254198.973 2821079.336 134.626
254198.973 2821079.336 136.626
254198.973 2821079.336 138.626
254198.973 2821079.336 140.626
254198.973 2821079.336 142.626
254198.973 2821079.336 144.626
254198.973 2821079.336 146.626
254198.973 2821079.336 148.626
254198.973 2821079.336 150.626
254200.973 2821079.336 125.070
254200.973 2821079.336 127.070
254200.973 2821079.336 129.070
254200.973 2821079.336 131.070
254200.973 2821079.336 133.070
254200.973 2821079.336 135.070
254200.973 2821079.336 137.070
254200.973 2821079.336 139.070
254200.973 2821079.336 141.070
254200.973 2821079.336 143.070
254200.973 2821079.336 145.070
254200.973 2821079.336 147.070
254200.973 2821079.336 149.070
254200.973 2821079.336 151.070
254202.973 2821079.336 125.654
254202.973 2821079.336 127.654
254202.973 2821079.336 129.654
254202.973 2821079.336 131.654
254202.973 2821079.336 133.654
254202.973 2821079.336 135.654
254202.973 2821079.336 137.654
254202.973 2821079.336 139.654
254202.973 2821079.336 141.654
254202.973 2821079.336 143.654
254202.973 2821079.336 145.654
254202.973 2821079.336 147.654
254202.973 2821079.336 149.654
254202.973 2821079.336 151.654
254204.973 2821079.336 126.085
254204.973 2821079.336 128.085
254204.973 2821079.336 130.085
254204.973 2821079.336 132.085
254204.973 2821079.336 134.085
254204.973 2821079.336 136.085
254204.973 2821079.336 138.085
254204.973 2821079.336 140.085
254204.973 2821079.336 142.085
254204.973 2821079.336 144.085
254204.973 2821079.336 146.085
254204.973 2821079.336 148.085
254204.973 2821079.336 150.085
254204.973 2821079.336 152.085
254206.973 2821079.336 126.525
254206.973 2821079.336 128.525
254206.973 2821079.336 130.525
254206.973 2821079.336 132.525
254206.973 2821079.336 134.525
254206.973 2821079.336 136.525
254206.973 2821079.336 138.525
254206.973 2821079.336 140.525
254206.973 2821079.336 142.525
254206.973 2821079.336 144.525
254206.973 2821079.336 146.525
254206.973 2821079.336 148.525
254206.973 2821079.336 150.525
254206.973 2821079.336 152.525
254208.973 2821079.336 124.930
254208.973 2821079.336 126.930
254208.973 2821079.336 128.930
254208.973 2821079.336 130.930
254208.973 2821079.336 132.930
254208.973 2821079.336 134.930
254208.973 2821079.336 136.930
254208.973 2821079.336 138.930
254208.973 2821079.336 140.930
254208.973 2821079.336 142.930
254208.973 2821079.336 144.930
254208.973 2821079.336 146.930
254208.973 2821079.336 148.930
254208.973 2821079.336 150.930
254208.973 2821079.336 152.930
254210.973 2821079.336 125.321
254210.973 2821079.336 127.321
254210.973 2821079.336 129.321
254210.973 2821079.336 131.321
254210.973 2821079.336 133.321
254210.973 2821079.336 135.321
254210.973 2821079.336 137.321
254210.973 2821079.336 139.321
254210.973 2821079.336 141.321
254210.973 2821079.336 143.321
254210.973 2821079.336 145.321
254210.973 2821079.336 147.321
254210.973 2821079.336 149.321
254210.973 2821079.336 151.321
254210.973 2821079.336 153.321
254212.973 2821079.336 125.501
254212.973 2821079.336 127.501
254212.973 2821079.336 129.501
254212.973 2821079.336 131.501
254212.973 2821079.336 133.501
254212.973 2821079.336 135.501
254212.973 2821079.336 137.501
254212.973 2821079.336 139.501
254212.973 2821079.336 141.501
254212.973 2821079.336 143.501
254212.973 2821079.336 145.501
254212.973 2821079.336 147.501
254212.973 2821079.336 149.501
254212.973 2821079.336 151.501
254212.973 2821079.336 153.501
254214.973 2821079.336 123.258
254214.973 2821079.336 125.258
254214.973 2821079.336 127.258
254214.973 2821079.336 129.258
254214.973 2821079.336 131.258
254214.973 2821079.336 133.258
254214.973 2821079.336 135.258
254214.973 2821079.336 137.258
254214.973 2821079.336 139.258
254214.973 2821079.336 141.258
254214.973 2821079.336 143.258
254214.973 2821079.336 145.258
254214.973 2821079.336 147.258
254214.973 2821079.336 149.258
254214.973 2821079.336 151.258
254214.973 2821079.336 153.258
254216.973 2821079.336 125.067
254216.973 2821079.336 127.067
254216.973 2821079.336 129.067
254216.973 2821079.336 131.067
254216.973 2821079.336 133.067
254216.973 2821079.336 135.067
254216.973 2821079.336 137.067
254216.973 2821079.336 139.067
254216.973 2821079.336 141.067
254216.973 2821079.336 143.067
254216.973 2821079.336 145.067
254216.973 2821079.336 147.067
254216.973 2821079.336 149.067
254216.973 2821079.336 151.067
254216.973 2821079.336 153.067
254218.973 2821079.336 124.803
254218.973 2821079.336 126.803
254218.973 2821079.336 128.803
254218.973 2821079.336 130.803
254218.973 2821079.336 132.803
254218.973 2821079.336 134.803
254218.973 2821079.336 136.803
254218.973 2821079.336 138.803
254218.973 2821079.336 140.803
254218.973 2821079.336 142.803
254218.973 2821079.336 144.803
254218.973 2821079.336 146.803
254218.973 2821079.336 148.803
254218.973 2821079.336 150.803
254218.973 2821079.336 152.803
254220.973 2821079.336 126.150
254220.973 2821079.336 128.150
254220.973 2821079.336 130.150
254220.973 2821079.336 132.150
254220.973 2821079.336 134.150
254220.973 2821079.336 136.150
254220.973 2821079.336 138.150
254220.973 2821079.336 140.150
254220.973 2821079.336 142.150
254220.973 2821079.336 144.150
254220.973 2821079.336 146.150
254220.973 2821079.336 148.150
254220.973 2821079.336 150.150
254220.973 2821079.336 152.150
254222.973 2821079.336 125.750
254222.973 2821079.336 127.750
254222.973 2821079.336 129.750
254222.973 2821079.336 131.750
254222.973 2821079.336 133.750
254222.973 2821079.336 135.750
254222.973 2821079.336 137.750
254222.973 2821079.336 139.750
254222.973 2821079.336 141.750
254222.973 2821079.336 143.750
254222.973 2821079.336 145.750
254222.973 2821079.336 147.750
254222.973 2821079.336 149.750
254222.973 2821079.336 151.750
254224.973 2821079.336 129.387
254224.973 2821079.336 131.387
254224.973 2821079.336 133.387
254224.973 2821079.336 135.387
254224.973 2821079.336 137.387
254224.973 2821079.336 139.387
254224.973 2821079.336 141.387
254224.973 2821079.336 143.387
254224.973 2821079.336 145.387
254224.973 2821079.336 147.387
254224.973 2821079.336 149.387
254224.973 2821079.336 151.387
254226.973 2821079.336 128.961
254226.973 2821079.336 130.961
254226.973 2821079.336 132.961
254226.973 2821079.336 134.961
254226.973 2821079.336 136.961
254226.973 2821079.336 138.961
254226.973 2821079.336 140.961
254226.973 2821079.336 142.961
254226.973 2821079.336 144.961
254226.973 2821079.336 146.961
254226.973 2821079.336 148.961
254226.973 2821079.336 150.961
254228.973 2821079.336 127.677
254228.973 2821079.336 129.677
254228.973 2821079.336 131.677
254228.973 2821079.336 133.677
254228.973 2821079.336 135.677
254228.973 2821079.336 137.677
254228.973 2821079.336 139.677
254228.973 2821079.336 141.677
254228.973 2821079.336 143.677
254228.973 2821079.336 145.677
254228.973 2821079.336 147.677
254228.973 2821079.336 149.677
254228.973 2821079.336 151.677
254228.973 2821079.336 153.677
254230.973 2821079.336 127.422
254230.973 2821079.336 129.422
254230.973 2821079.336 131.422
254230.973 2821079.336 133.422
254230.973 2821079.336 135.422
254230.973 2821079.336 137.422
254230.973 2821079.336 139.422
254230.973 2821079.336 141.422
254230.973 2821079.336 143.422
254230.973 2821079.336 145.422
254230.973 2821079.336 147.422
254230.973 2821079.336 149.422
254230.973 2821079.336 151.422
254230.973 2821079.336 153.422
254232.973 2821079.336 126.552
254232.973 2821079.336 128.552
254232.973 2821079.336 130.552
254232.973 2821079.336 132.552
254232.973 2821079.336 134.552
254232.973 2821079.336 136.552
254232.973 2821079.336 138.552
254232.973 2821079.336 140.552
254232.973 2821079.336 142.552
254232.973 2821079.336 144.552
254232.973 2821079.336 146.552
254232.973 2821079.336 148.552
254232.973 2821079.336 150.552
254232.973 2821079.336 152.552
254234.973 2821079.336 125.741
254234.973 2821079.336 127.741
254234.973 2821079.336 129.741
254234.973 2821079.336 131.741
254234.973 2821079.336 133.741
254234.973 2821079.336 135.741
254234.973 2821079.336 137.741
254234.973 2821079.336 139.741
254234.973 2821079.336 141.741
254234.973 2821079.336 143.741
254234.973 2821079.336 145.741
254234.973 2821079.336 147.741
254234.973 2821079.336 149.741
254236.973 2821079.336 126.826
254236.973 2821079.336 128.826
254236.973 2821079.336 130.826
254236.973 2821079.336 132.826
254236.973 2821079.336 134.826
254236.973 2821079.336 136.826
254236.973 2821079.336 138.826
254236.973 2821079.336 140.826
254236.973 2821079.336 142.826
254236.973 2821079.336 144.826
254236.973 2821079.336 146.826
254236.973 2821079.336 148.826
254238.973 2821079.336 127.346
254238.973 2821079.336 129.346
254238.973 2821079.336 131.346
254238.973 2821079.336 133.346
254238.973 2821079.336 135.346
254238.973 2821079.336 137.346
254238.973 2821079.336 139.346
254238.973 2821079.336 141.346
254238.973 2821079.336 143.346
254238.973 2821079.336 145.346
254238.973 2821079.336 147.346
254238.973 2821079.336 149.346
254238.973 2821079.336 151.346
254240.973 2821079.336 126.822
254240.973 2821079.336 128.822
254240.973 2821079.336 130.822
254240.973 2821079.336 132.822
254240.973 2821079.336 134.822
254240.973 2821079.336 136.822
254240.973 2821079.336 138.822
254240.973 2821079.336 140.822
254240.973 2821079.336 142.822
254240.973 2821079.336 144.822
254240.973 2821079.336 146.822
254240.973 2821079.336 148.822
254240.973 2821079.336 150.822
254242.973 2821079.336 129.184
254242.973 2821079.336 131.184
254242.973 2821079.336 133.184
254242.973 2821079.336 135.184
254242.973 2821079.336 137.184
254242.973 2821079.336 139.184
254242.973 2821079.336 141.184
254242.973 2821079.336 143.184
254242.973 2821079.336 145.184
254242.973 2821079.336 147.184
254244.973 2821079.336 132.625
254244.973 2821079.336 134.625
254244.973 2821079.336 136.625
254244.973 2821079.336 138.625
254244.973 2821079.336 140.625
254244.973 2821079.336 142.625
254244.973 2821079.336 144.625
254244.973 2821079.336 146.625
254246.973 2821079.336 142.069
254246.973 2821079.336 144.069
254246.973 2821079.336 146.069
254248.973 2821079.336 143.541
254248.973 2821079.336 145.541
254250.973 2821079.336 144.974
254252.973 2821079.336 144.531
254192.973 2821077.336 132.828
254192.973 2821077.336 134.828
254192.973 2821077.336 136.828
254192.973 2821077.336 138.828
254192.973 2821077.336 140.828
254192.973 2821077.336 142.828
254192.973 2821077.336 144.828
254192.973 2821077.336 146.828
254192.973 2821077.336 148.828
254194.973 2821077.336 133.358
254194.973 2821077.336 135.358
254194.973 2821077.336 137.358
254194.973 2821077.336 139.358
254194.973 2821077.336 141.358
254194.973 2821077.336 143.358
254194.973 2821077.336 145.358
254194.973 2821077.336 147.358
254194.973 2821077.336 149.358
254196.973 2821077.336 133.856
254196.973 2821077.336 135.856
254196.973 2821077.336 137.856
254196.973 2821077.336 139.856
254196.973 2821077.336 141.856
254196.973 2821077.336 143.856
254196.973 2821077.336 145.856
254196.973 2821077.336 147.856
254196.973 2821077.336 149.856
254198.973 2821077.336 132.307
254198.973 2821077.336 134.307
254198.973 2821077.336 136.307
254198.973 2821077.336 138.307
254198.973 2821077.336 140.307
254198.973 2821077.336 142.307
254198.973 2821077.336 144.307
254198.973 2821077.336 146.307
254198.973 2821077.336 148.307
254198.973 2821077.336 150.307
254200.973 2821077.336 124.740
254200.973 2821077.336 126.740
254200.973 2821077.336 128.740
254200.973 2821077.336 130.740
254200.973 2821077.336 132.740
254200.973 2821077.336 134.740
254200.973 2821077.336 136.740
254200.973 2821077.336 138.740
254200.973 2821077.336 140.740
254200.973 2821077.336 142.740
254200.973 2821077.336 144.740
254200.973 2821077.336 146.740
254200.973 2821077.336 148.740
254200.973 2821077.336 150.740
254202.973 2821077.336 125.262
254202.973 2821077.336 127.262
254202.973 2821077.336 129.262
254202.973 2821077.336 131.262
254202.973 2821077.336 133.262
254202.973 2821077.336 135.262
254202.973 2821077.336 137.262
254202.973 2821077.336 139.262
254202.973 2821077.336 141.262
254202.973 2821077.336 143.262
254202.973 2821077.336 145.262
254202.973 2821077.336 147.262
254202.973 2821077.336 149.262
254202.973 2821077.336 151.262
254204.973 2821077.336 125.666
254204.973 2821077.336 127.666
254204.973 2821077.336 129.666
254204.973 2821077.336 131.666
254204.973 2821077.336 133.666
254204.973 2821077.336 135.666
254204.973 2821077.336 137.666
254204.973 2821077.336 139.666
254204.973 2821077.336 141.666
254204.973 2821077.336 143.666
254204.973 2821077.336 145.666
254204.973 2821077.336 147.666
254204.973 2821077.336 149.666
254204.973 2821077.336 151.666
254206.973 2821077.336 125.818
254206.973 2821077.336 127.818
254206.973 2821077.336 129.818
254206.973 2821077.336 131.818
254206.973 2821077.336 133.818
254206.973 2821077.336 135.818
254206.973 2821077.336 137.818
254206.973 2821077.336 139.818
254206.973 2821077.336 141.818
254206.973 2821077.336 143.818
254206.973 2821077.336 145.818
254206.973 2821077.336 147.818
254206.973 2821077.336 149.818
254206.973 2821077.336 151.818
254208.973 2821077.336 125.927
254208.973 2821077.336 127.927
254208.973 2821077.336 129.927
254208.973 2821077.336 131.927
254208.973 2821077.336 133.927
254208.973 2821077.336 135.927
254208.973 2821077.336 137.927
254208.973 2821077.336 139.927
254208.973 2821077.336 141.927
254208.973 2821077.336 143.927
254208.973 2821077.336 145.927
254208.973 2821077.336 147.927
254208.973 2821077.336 149.927
254208.973 2821077.336 151.927
254210.973 2821077.336 124.050
254210.973 2821077.336 126.050
254210.973 2821077.336 128.050
254210.973 2821077.336 130.050
254210.973 2821077.336 132.050
254210.973 2821077.336 134.050
254210.973 2821077.336 136.050
254210.973 2821077.336 138.050
254210.973 2821077.336 140.050
254210.973 2821077.336 142.050
254210.973 2821077.336 144.050
254210.973 2821077.336 146.050
254210.973 2821077.336 148.050
254210.973 2821077.336 150.050
254210.973 2821077.336 152.050
254212.973 2821077.336 124.224
254212.973 2821077.336 126.224
254212.973 2821077.336 128.224
254212.973 2821077.336 130.224
254212.973 2821077.336 132.224
254212.973 2821077.336 134.224
254212.973 2821077.336 136.224
254212.973 2821077.336 138.224
254212.973 2821077.336 140.224
254212.973 2821077.336 142.224
254212.973 2821077.336 144.224
254212.973 2821077.336 146.224
254212.973 2821077.336 148.224
254212.973 2821077.336 150.224
254212.973 2821077.336 152.224
254214.973 2821077.336 124.590
254214.973 2821077.336 126.590
254214.973 2821077.336 128.590
254214.973 2821077.336 130.590
254214.973 2821077.336 132.590
254214.973 2821077.336 134.590
254214.973 2821077.336 136.590
254214.973 2821077.336 138.590
254214.973 2821077.336 140.590
254214.973 2821077.336 142.590
254214.973 2821077.336 144.590
254214.973 2821077.336 146.590
254214.973 2821077.336 148.590
254214.973 2821077.336 150.590
254214.973 2821077.336 152.590
254216.973 2821077.336 125.010
254216.973 2821077.336 127.010
254216.973 2821077.336 129.010
254216.973 2821077.336 131.010
254216.973 2821077.336 133.010
254216.973 2821077.336 135.010
254216.973 2821077.336 137.010
254216.973 2821077.336 139.010
254216.973 2821077.336 141.010
254216.973 2821077.336 143.010
254216.973 2821077.336 145.010
254216.973 2821077.336 147.010
254216.973 2821077.336 149.010
254216.973 2821077.336 151.010
254216.973 2821077.336 153.010
254218.973 2821077.336 124.967
254218.973 2821077.336 126.967
254218.973 2821077.336 128.967
254218.973 2821077.336 130.967
254218.973 2821077.336 132.967
254218.973 2821077.336 134.967
254218.973 2821077.336 136.967
254218.973 2821077.336 138.967
254218.973 2821077.336 140.967
254218.973 2821077.336 142.967
254218.973 2821077.336 144.967
254218.973 2821077.336 146.967
254218.973 2821077.336 148.967
254218.973 2821077.336 150.967
254218.973 2821077.336 152.967
254220.973 2821077.336 124.690
254220.973 2821077.336 126.690
254220.973 2821077.336 128.690
254220.973 2821077.336 130.690
254220.973 2821077.336 132.690
254220.973 2821077.336 134.690
254220.973 2821077.336 136.690
254220.973 2821077.336 138.690
254220.973 2821077.336 140.690
254220.973 2821077.336 142.690
254220.973 2821077.336 144.690
254220.973 2821077.336 146.690
254220.973 2821077.336 148.690
254220.973 2821077.336 150.690
254220.973 2821077.336 152.690
254222.973 2821077.336 125.806
254222.973 2821077.336 127.806
254222.973 2821077.336 129.806
254222.973 2821077.336 131.806
254222.973 2821077.336 133.806
254222.973 2821077.336 135.806
254222.973 2821077.336 137.806
254222.973 2821077.336 139.806
254222.973 2821077.336 141.806
254222.973 2821077.336 143.806
254222.973 2821077.336 145.806
254222.973 2821077.336 147.806
254222.973 2821077.336 149.806
254222.973 2821077.336 151.806
254224.973 2821077.336 129.326
254224.973 2821077.336 131.326
254224.973 2821077.336 133.326
254224.973 2821077.336 135.326
254224.973 2821077.336 137.326
254224.973 2821077.336 139.326
254224.973 2821077.336 141.326
254224.973 2821077.336 143.326
254224.973 2821077.336 145.326
254224.973 2821077.336 147.326
254224.973 2821077.336 149.326
254224.973 2821077.336 151.326
254226.973 2821077.336 126.773
254226.973 2821077.336 128.773
254226.973 2821077.336 130.773
254226.973 2821077.336 132.773
254226.973 2821077.336 134.773
254226.973 2821077.336 136.773
254226.973 2821077.336 138.773
254226.973 2821077.336 140.773
254226.973 2821077.336 142.773
254226.973 2821077.336 144.773
254226.973 2821077.336 146.773
254226.973 2821077.336 148.773
254226.973 2821077.336 150.773
254228.973 2821077.336 128.118
254228.973 2821077.336 130.118
254228.973 2821077.336 132.118
254228.973 2821077.336 134.118
254228.973 2821077.336 136.118
254228.973 2821077.336 138.118
254228.973 2821077.336 140.118
254228.973 2821077.336 142.118
254228.973 2821077.336 144.118
254228.973 2821077.336 146.118
254228.973 2821077.336 148.118
254228.973 2821077.336 150.118
254228.973 2821077.336 152.118
254228.973 2821077.336 154.118
254230.973 2821077.336 125.683
254230.973 2821077.336 127.683
254230.973 2821077.336 129.683
254230.973 2821077.336 131.683
254230.973 2821077.336 133.683
254230.973 2821077.336 135.683
254230.973 2821077.336 137.683
254230.973 2821077.336 139.683
254230.973 2821077.336 141.683
254230.973 2821077.336 143.683
254230.973 2821077.336 145.683
254230.973 2821077.336 147.683
254230.973 2821077.336 149.683
254230.973 2821077.336 151.683
254230.973 2821077.336 153.683
254232.973 2821077.336 125.365
254232.973 2821077.336 127.365
254232.973 2821077.336 129.365
254232.973 2821077.336 131.365
254232.973 2821077.336 133.365
254232.973 2821077.336 135.365
254232.973 2821077.336 137.365
254232.973 2821077.336 139.365
254232.973 2821077.336 141.365
254232.973 2821077.336 143.365
254232.973 2821077.336 145.365
254232.973 2821077.336 147.365
254232.973 2821077.336 149.365
254232.973 2821077.336 151.365
254232.973 2821077.336 153.365
254234.973 2821077.336 125.016
254234.973 2821077.336 127.016
254234.973 2821077.336 129.016
254234.973 2821077.336 131.016
254234.973 2821077.336 133.016
254234.973 2821077.336 135.016
254234.973 2821077.336 137.016
254234.973 2821077.336 139.016
254234.973 2821077.336 141.016
254234.973 2821077.336 143.016
254234.973 2821077.336 145.016
254234.973 2821077.336 147.016
254234.973 2821077.336 149.016
254236.973 2821077.336 124.691
254236.973 2821077.336 126.691
254236.973 2821077.336 128.691
254236.973 2821077.336 130.691
254236.973 2821077.336 132.691
254236.973 2821077.336 134.691
254236.973 2821077.336 136.691
254236.973 2821077.336 138.691
254236.973 2821077.336 140.691
254236.973 2821077.336 142.691
254236.973 2821077.336 144.691
254236.973 2821077.336 146.691
254236.973 2821077.336 148.691
254238.973 2821077.336 127.203
254238.973 2821077.336 129.203
254238.973 2821077.336 131.203
254238.973 2821077.336 133.203
254238.973 2821077.336 135.203
254238.973 2821077.336 137.203
254238.973 2821077.336 139.203
254238.973 2821077.336 141.203
254238.973 2821077.336 143.203
254238.973 2821077.336 145.203
254238.973 2821077.336 147.203
254238.973 2821077.336 149.203
254238.973 2821077.336 151.203
254240.973 2821077.336 128.635
254240.973 2821077.336 130.635
254240.973 2821077.336 132.635
254240.973 2821077.336 134.635
254240.973 2821077.336 136.635
254240.973 2821077.336 138.635
254240.973 2821077.336 140.635
254240.973 2821077.336 142.635
254240.973 2821077.336 144.635
254240.973 2821077.336 146.635
254240.973 2821077.336 148.635
254240.973 2821077.336 150.635
254242.973 2821077.336 127.043
254242.973 2821077.336 129.043
254242.973 2821077.336 131.043
254242.973 2821077.336 133.043
254242.973 2821077.336 135.043
254242.973 2821077.336 137.043
254242.973 2821077.336 139.043
254242.973 2821077.336 141.043
254242.973 2821077.336 143.043
254242.973 2821077.336 145.043
254242.973 2821077.336 147.043
254244.973 2821077.336 140.484
254244.973 2821077.336 142.484
254244.973 2821077.336 144.484
254244.973 2821077.336 146.484
254246.973 2821077.336 141.958
254246.973 2821077.336 143.958
254246.973 2821077.336 145.958
254248.973 2821077.336 143.441
254248.973 2821077.336 145.441
254250.973 2821077.336 144.896
254252.973 2821077.336 144.465
254192.973 2821075.336 132.499
254192.973 2821075.336 134.499
254192.973 2821075.336 136.499
254192.973 2821075.336 138.499
254192.973 2821075.336 140.499
254192.973 2821075.336 142.499
254192.973 2821075.336 144.499
254192.973 2821075.336 146.499
254192.973 2821075.336 148.499
254194.973 2821075.336 132.996
254194.973 2821075.336 134.996
254194.973 2821075.336 136.996
254194.973 2821075.336 138.996
254194.973 2821075.336 140.996
254194.973 2821075.336 142.996
254194.973 2821075.336 144.996
254194.973 2821075.336 146.996
254194.973 2821075.336 148.996
254196.973 2821075.336 133.491
254196.973 2821075.336 135.491
254196.973 2821075.336 137.491
254196.973 2821075.336 139.491
254196.973 2821075.336 141.491
254196.973 2821075.336 143.491
254196.973 2821075.336 145.491
254196.973 2821075.336 147.491
254196.973 2821075.336 149.491
254198.973 2821075.336 131.937
254198.973 2821075.336 133.937
254198.973 2821075.336 135.937
254198.973 2821075.336 137.937
254198.973 2821075.336 139.937
254198.973 2821075.336 141.937
254198.973 2821075.336 143.937
254198.973 2821075.336 145.937
254198.973 2821075.336 147.937
254198.973 2821075.336 149.937
254200.973 2821075.336 124.344
254200.973 2821075.336 126.344
254200.973 2821075.336 128.344
254200.973 2821075.336 130.344
254200.973 2821075.336 132.344
254200.973 2821075.336 134.344
254200.973 2821075.336 136.344
254200.973 2821075.336 138.344
254200.973 2821075.336 140.344
254200.973 2821075.336 142.344
254200.973 2821075.336 144.344
254200.973 2821075.336 146.344
254200.973 2821075.336 148.344
254200.973 2821075.336 150.344
254202.973 2821075.336 124.726
254202.973 2821075.336 126.726
254202.973 2821075.336 128.726
254202.973 2821075.336 130.726
254202.973 2821075.336 132.726
254202.973 2821075.336 134.726
254202.973 2821075.336 136.726
254202.973 2821075.336 138.726
254202.973 2821075.336 140.726
254202.973 2821075.336 142.726
254202.973 2821075.336 144.726
254202.973 2821075.336 146.726
254202.973 2821075.336 148.726
254202.973 2821075.336 150.726
254204.973 2821075.336 125.070
254204.973 2821075.336 127.070
254204.973 2821075.336 129.070
254204.973 2821075.336 131.070
254204.973 2821075.336 133.070
254204.973 2821075.336 135.070
254204.973 2821075.336 137.070
254204.973 2821075.336 139.070
254204.973 2821075.336 141.070
254204.973 2821075.336 143.070
254204.973 2821075.336 145.070
254204.973 2821075.336 147.070
254204.973 2821075.336 149.070
254204.973 2821075.336 151.070
254206.973 2821075.336 125.173
254206.973 2821075.336 127.173
254206.973 2821075.336 129.173
254206.973 2821075.336 131.173
254206.973 2821075.336 133.173
254206.973 2821075.336 135.173
254206.973 2821075.336 137.173
254206.973 2821075.336 139.173
254206.973 2821075.336 141.173
254206.973 2821075.336 143.173
254206.973 2821075.336 145.173
254206.973 2821075.336 147.173
254206.973 2821075.336 149.173
254206.973 2821075.336 151.173
254208.973 2821075.336 125.197
254208.973 2821075.336 127.197
254208.973 2821075.336 129.197
254208.973 2821075.336 131.197
254208.973 2821075.336 133.197
254208.973 2821075.336 135.197
254208.973 2821075.336 137.197
254208.973 2821075.336 139.197
254208.973 2821075.336 141.197
254208.973 2821075.336 143.197
254208.973 2821075.336 145.197
254208.973 2821075.336 147.197
254208.973 2821075.336 149.197
254208.973 2821075.336 151.197
254210.973 2821075.336 123.301
254210.973 2821075.336 125.301
254210.973 2821075.336 127.301
254210.973 2821075.336 129.301
254210.973 2821075.336 131.301
254210.973 2821075.336 133.301
254210.973 2821075.336 135.301
254210.973 2821075.336 137.301
254210.973 2821075.336 139.301
254210.973 2821075.336 141.301
254210.973 2821075.336 143.301
254210.973 2821075.336 145.301
254210.973 2821075.336 147.301
254210.973 2821075.336 149.301
254210.973 2821075.336 151.301
254212.973 2821075.336 123.583
254212.973 2821075.336 125.583
254212.973 2821075.336 127.583
254212.973 2821075.336 129.583
254212.973 2821075.336 131.583
254212.973 2821075.336 133.583
254212.973 2821075.336 135.583
254212.973 2821075.336 137.583
254212.973 2821075.336 139.583
254212.973 2821075.336 141.583
254212.973 2821075.336 143.583
254212.973 2821075.336 145.583
254212.973 2821075.336 147.583
254212.973 2821075.336 149.583
254212.973 2821075.336 151.583
254214.973 2821075.336 122.483
254214.973 2821075.336 124.483
254214.973 2821075.336 126.483
254214.973 2821075.336 128.483
254214.973 2821075.336 130.483
254214.973 2821075.336 132.483
254214.973 2821075.336 134.483
254214.973 2821075.336 136.483
254214.973 2821075.336 138.483
254214.973 2821075.336 140.483
254214.973 2821075.336 142.483
254214.973 2821075.336 144.483
254214.973 2821075.336 146.483
254214.973 2821075.336 148.483
254214.973 2821075.336 150.483
254214.973 2821075.336 152.483
254216.973 2821075.336 125.352
254216.973 2821075.336 127.352
254216.973 2821075.336 129.352
254216.973 2821075.336 131.352
254216.973 2821075.336 133.352
254216.973 2821075.336 135.352
254216.973 2821075.336 137.352
254216.973 2821075.336 139.352
254216.973 2821075.336 141.352
254216.973 2821075.336 143.352
254216.973 2821075.336 145.352
254216.973 2821075.336 147.352
254216.973 2821075.336 149.352
254216.973 2821075.336 151.352
254216.973 2821075.336 153.352
254218.973 2821075.336 125.299
254218.973 2821075.336 127.299
254218.973 2821075.336 129.299
254218.973 2821075.336 131.299
254218.973 2821075.336 133.299
254218.973 2821075.336 135.299
254218.973 2821075.336 137.299
254218.973 2821075.336 139.299
254218.973 2821075.336 141.299
254218.973 2821075.336 143.299
254218.973 2821075.336 145.299
254218.973 2821075.336 147.299
254218.973 2821075.336 149.299
254218.973 2821075.336 151.299
254218.973 2821075.336 153.299
254220.973 2821075.336 124.871
254220.973 2821075.336 126.871
254220.973 2821075.336 128.871
254220.973 2821075.336 130.871
254220.973 2821075.336 132.871
254220.973 2821075.336 134.871
254220.973 2821075.336 136.871
254220.973 2821075.336 138.871
254220.973 2821075.336 140.871
254220.973 2821075.336 142.871
254220.973 2821075.336 144.871
254220.973 2821075.336 146.871
254220.973 2821075.336 148.871
254220.973 2821075.336 150.871
254220.973 2821075.336 152.871
254222.973 2821075.336 125.777
254222.973 2821075.336 127.777
254222.973 2821075.336 129.777
254222.973 2821075.336 131.777
254222.973 2821075.336 133.777
254222.973 2821075.336 135.777
254222.973 2821075.336 137.777
254222.973 2821075.336 139.777
254222.973 2821075.336 141.777
254222.973 2821075.336 143.777
254222.973 2821075.336 145.777
254222.973 2821075.336 147.777
254222.973 2821075.336 149.777
254222.973 2821075.336 151.777
254222.973 2821075.336 153.777
254224.973 2821075.336 127.282
254224.973 2821075.336 129.282
254224.973 2821075.336 131.282
254224.973 2821075.336 133.282
254224.973 2821075.336 135.282
254224.973 2821075.336 137.282
254224.973 2821075.336 139.282
254224.973 2821075.336 141.282
254224.973 2821075.336 143.282
254224.973 2821075.336 145.282
254224.973 2821075.336 147.282
254224.973 2821075.336 149.282
254224.973 2821075.336 151.282
254224.973 2821075.336 153.282
254224.973 2821075.336 155.282
254226.973 2821075.336 126.558
254226.973 2821075.336 128.558
254226.973 2821075.336 130.558
254226.973 2821075.336 132.558
254226.973 2821075.336 134.558
254226.973 2821075.336 136.558
254226.973 2821075.336 138.558
254226.973 2821075.336 140.558
254226.973 2821075.336 142.558
254226.973 2821075.336 144.558
254226.973 2821075.336 146.558
254226.973 2821075.336 148.558
254226.973 2821075.336 150.558
254226.973 2821075.336 152.558
254226.973 2821075.336 154.558
254228.973 2821075.336 125.853
254228.973 2821075.336 127.853
254228.973 2821075.336 129.853
254228.973 2821075.336 131.853
254228.973 2821075.336 133.853
254228.973 2821075.336 135.853
254228.973 2821075.336 137.853
254228.973 2821075.336 139.853
254228.973 2821075.336 141.853
254228.973 2821075.336 143.853
254228.973 2821075.336 145.853
254228.973 2821075.336 147.853
254228.973 2821075.336 149.853
254228.973 2821075.336 151.853
254228.973 2821075.336 153.853
254230.973 2821075.336 125.585
254230.973 2821075.336 127.585
254230.973 2821075.336 129.585
254230.973 2821075.336 131.585
254230.973 2821075.336 133.585
254230.973 2821075.336 135.585
254230.973 2821075.336 137.585
254230.973 2821075.336 139.585
254230.973 2821075.336 141.585
254230.973 2821075.336 143.585
254230.973 2821075.336 145.585
254230.973 2821075.336 147.585
254230.973 2821075.336 149.585
254230.973 2821075.336 151.585
254230.973 2821075.336 153.585
254232.973 2821075.336 125.377
254232.973 2821075.336 127.377
254232.973 2821075.336 129.377
254232.973 2821075.336 131.377
254232.973 2821075.336 133.377
254232.973 2821075.336 135.377
254232.973 2821075.336 137.377
254232.973 2821075.336 139.377
254232.973 2821075.336 141.377
254232.973 2821075.336 143.377
254232.973 2821075.336 145.377
254232.973 2821075.336 147.377
254232.973 2821075.336 149.377
254232.973 2821075.336 151.377
254232.973 2821075.336 153.377
254234.973 2821075.336 125.045
254234.973 2821075.336 127.045
254234.973 2821075.336 129.045
254234.973 2821075.336 131.045
254234.973 2821075.336 133.045
254234.973 2821075.336 135.045
254234.973 2821075.336 137.045
254234.973 2821075.336 139.045
254234.973 2821075.336 141.045
254234.973 2821075.336 143.045
254234.973 2821075.336 145.045
254234.973 2821075.336 147.045
254234.973 2821075.336 149.045
254236.973 2821075.336 126.396
254236.973 2821075.336 128.396
254236.973 2821075.336 130.396
254236.973 2821075.336 132.396
254236.973 2821075.336 134.396
254236.973 2821075.336 136.396
254236.973 2821075.336 138.396
254236.973 2821075.336 140.396
254236.973 2821075.336 142.396
254236.973 2821075.336 144.396
254236.973 2821075.336 146.396
254236.973 2821075.336 148.396
254238.973 2821075.336 127.876
254238.973 2821075.336 129.876
254238.973 2821075.336 131.876
254238.973 2821075.336 133.876
254238.973 2821075.336 135.876
254238.973 2821075.336 137.876
254238.973 2821075.336 139.876
254238.973 2821075.336 141.876
254238.973 2821075.336 143.876
254238.973 2821075.336 145.876
254238.973 2821075.336 147.876
254240.973 2821075.336 127.298
254240.973 2821075.336 129.298
254240.973 2821075.336 131.298
254240.973 2821075.336 133.298
254240.973 2821075.336 135.298
254240.973 2821075.336 137.298
254240.973 2821075.336 139.298
254240.973 2821075.336 141.298
254240.973 2821075.336 143.298
254240.973 2821075.336 145.298
254240.973 2821075.336 147.298
254242.973 2821075.336 138.722
254242.973 2821075.336 140.722
254242.973 2821075.336 142.722
254242.973 2821075.336 144.722
254242.973 2821075.336 146.722
254244.973 2821075.336 140.269
254244.973 2821075.336 142.269
254244.973 2821075.336 144.269
254244.973 2821075.336 146.269
254246.973 2821075.336 141.831
254246.973 2821075.336 143.831
254246.973 2821075.336 145.831
254248.973 2821075.336 143.340
254248.973 2821075.336 145.340
254250.973 2821075.336 144.813
254252.973 2821075.336 144.390
254192.973 2821073.336 132.063
254192.973 2821073.336 134.063
254192.973 2821073.336 136.063
254192.973 2821073.336 138.063
254192.973 2821073.336 140.063
254192.973 2821073.336 142.063
254192.973 2821073.336 144.063
254192.973 2821073.336 146.063
254192.973 2821073.336 148.063
254194.973 2821073.336 132.543
254194.973 2821073.336 134.543
254194.973 2821073.336 136.543
254194.973 2821073.336 138.543
254194.973 2821073.336 140.543
254194.973 2821073.336 142.543
254194.973 2821073.336 144.543
254194.973 2821073.336 146.543
254194.973 2821073.336 148.543
254196.973 2821073.336 133.018
254196.973 2821073.336 135.018
254196.973 2821073.336 137.018
254196.973 2821073.336 139.018
254196.973 2821073.336 141.018
254196.973 2821073.336 143.018
254196.973 2821073.336 145.018
254196.973 2821073.336 147.018
254196.973 2821073.336 149.018
254198.973 2821073.336 129.476
254198.973 2821073.336 131.476
254198.973 2821073.336 133.476
254198.973 2821073.336 135.476
254198.973 2821073.336 137.476
254198.973 2821073.336 139.476
254198.973 2821073.336 141.476
254198.973 2821073.336 143.476
254198.973 2821073.336 145.476
254198.973 2821073.336 147.476
254198.973 2821073.336 149.476
254200.973 2821073.336 123.892
254200.973 2821073.336 125.892
254200.973 2821073.336 127.892
254200.973 2821073.336 129.892
254200.973 2821073.336 131.892
254200.973 2821073.336 133.892
254200.973 2821073.336 135.892
254200.973 2821073.336 137.892
254200.973 2821073.336 139.892
254200.973 2821073.336 141.892
254200.973 2821073.336 143.892
254200.973 2821073.336 145.892
254200.973 2821073.336 147.892
254200.973 2821073.336 149.892
254202.973 2821073.336 124.230
254202.973 2821073.336 126.230
254202.973 2821073.336 128.230
254202.973 2821073.336 130.230
254202.973 2821073.336 132.230
254202.973 2821073.336 134.230
254202.973 2821073.336 136.230
254202.973 2821073.336 138.230
254202.973 2821073.336 140.230
254202.973 2821073.336 142.230
254202.973 2821073.336 144.230
254202.973 2821073.336 146.230
254202.973 2821073.336 148.230
254202.973 2821073.336 150.230
254204.973 2821073.336 124.474
254204.973 2821073.336 126.474
254204.973 2821073.336 128.474
254204.973 2821073.336 130.474
254204.973 2821073.336 132.474
254204.973 2821073.336 134.474
254204.973 2821073.336 136.474
254204.973 2821073.336 138.474
254204.973 2821073.336 140.474
254204.973 2821073.336 142.474
254204.973 2821073.336 144.474
254204.973 2821073.336 146.474
254204.973 2821073.336 148.474
254204.973 2821073.336 150.474
254206.973 2821073.336 124.561
254206.973 2821073.336 126.561
254206.973 2821073.336 128.561
254206.973 2821073.336 130.561
254206.973 2821073.336 132.561
254206.973 2821073.336 134.561
254206.973 2821073.336 136.561
254206.973 2821073.336 138.561
254206.973 2821073.336 140.561
254206.973 2821073.336 142.561
254206.973 2821073.336 144.561
254206.973 2821073.336 146.561
254206.973 2821073.336 148.561
254206.973 2821073.336 150.561
254208.973 2821073.336 124.626
254208.973 2821073.336 126.626
254208.973 2821073.336 128.626
254208.973 2821073.336 130.626
254208.973 2821073.336 132.626
254208.973 2821073.336 134.626
254208.973 2821073.336 136.626
254208.973 2821073.336 138.626
254208.973 2821073.336 140.626
254208.973 2821073.336 142.626
254208.973 2821073.336 144.626
254208.973 2821073.336 146.626
254208.973 2821073.336 148.626
254208.973 2821073.336 150.626
254210.973 2821073.336 122.759
254210.973 2821073.336 124.759
254210.973 2821073.336 126.759
254210.973 2821073.336 128.759
254210.973 2821073.336 130.759
254210.973 2821073.336 132.759
254210.973 2821073.336 134.759
254210.973 2821073.336 136.759
254210.973 2821073.336 138.759
254210.973 2821073.336 140.759
254210.973 2821073.336 142.759
254210.973 2821073.336 144.759
254210.973 2821073.336 146.759
254210.973 2821073.336 148.759
254210.973 2821073.336 150.759
254212.973 2821073.336 123.043
254212.973 2821073.336 125.043
254212.973 2821073.336 127.043
254212.973 2821073.336 129.043
254212.973 2821073.336 131.043
254212.973 2821073.336 133.043
254212.973 2821073.336 135.043
254212.973 2821073.336 137.043
254212.973 2821073.336 139.043
254212.973 2821073.336 141.043
254212.973 2821073.336 143.043
254212.973 2821073.336 145.043
254212.973 2821073.336 147.043
254212.973 2821073.336 149.043
254212.973 2821073.336 151.043
254214.973 2821073.336 121.744
254214.973 2821073.336 123.744
254214.973 2821073.336 125.744
254214.973 2821073.336 127.744
254214.973 2821073.336 129.744
254214.973 2821073.336 131.744
254214.973 2821073.336 133.744
254214.973 2821073.336 135.744
254214.973 2821073.336 137.744
254214.973 2821073.336 139.744
254214.973 2821073.336 141.744
254214.973 2821073.336 143.744
254214.973 2821073.336 145.744
254214.973 2821073.336 147.744
254214.973 2821073.336 149.744
254214.973 2821073.336 151.744
254216.973 2821073.336 122.464
254216.973 2821073.336 124.464
254216.973 2821073.336 126.464
254216.973 2821073.336 128.464
254216.973 2821073.336 130.464
254216.973 2821073.336 132.464
254216.973 2821073.336 134.464
254216.973 2821073.336 136.464
254216.973 2821073.336 138.464
254216.973 2821073.336 140.464
254216.973 2821073.336 142.464
254216.973 2821073.336 144.464
254216.973 2821073.336 146.464
254216.973 2821073.336 148.464
254216.973 2821073.336 150.464
254216.973 2821073.336 152.464
254218.973 2821073.336 125.316
254218.973 2821073.336 127.316
254218.973 2821073.336 129.316
254218.973 2821073.336 131.316
254218.973 2821073.336 133.316
254218.973 2821073.336 135.316
254218.973 2821073.336 137.316
254218.973 2821073.336 139.316
254218.973 2821073.336 141.316
254218.973 2821073.336 143.316
254218.973 2821073.336 145.316
254218.973 2821073.336 147.316
254218.973 2821073.336 149.316
254218.973 2821073.336 151.316
254218.973 2821073.336 153.316
254220.973 2821073.336 124.843
254220.973 2821073.336 126.843
254220.973 2821073.336 128.843
254220.973 2821073.336 130.843
254220.973 2821073.336 132.843
254220.973 2821073.336 134.843
254220.973 2821073.336 136.843
254220.973 2821073.336 138.843
254220.973 2821073.336 140.843
254220.973 2821073.336 142.843
254220.973 2821073.336 144.843
254220.973 2821073.336 146.843
254220.973 2821073.336 148.843
254220.973 2821073.336 150.843
254220.973 2821073.336 152.843
254222.973 2821073.336 128.249
254222.973 2821073.336 130.249
254222.973 2821073.336 132.249
254222.973 2821073.336 134.249
254222.973 2821073.336 136.249
254222.973 2821073.336 138.249
254222.973 2821073.336 140.249
254222.973 2821073.336 142.249
254222.973 2821073.336 144.249
254222.973 2821073.336 146.249
254222.973 2821073.336 148.249
254222.973 2821073.336 150.249
254222.973 2821073.336 152.249
254222.973 2821073.336 154.249
254222.973 2821073.336 156.249
254224.973 2821073.336 127.116
254224.973 2821073.336 129.116
254224.973 2821073.336 131.116
254224.973 2821073.336 133.116
254224.973 2821073.336 135.116
254224.973 2821073.336 137.116
254224.973 2821073.336 139.116
254224.973 2821073.336 141.116
254224.973 2821073.336 143.116
254224.973 2821073.336 145.116
254224.973 2821073.336 147.116
254224.973 2821073.336 149.116
254224.973 2821073.336 151.116
254224.973 2821073.336 153.116
254224.973 2821073.336 155.116
254226.973 2821073.336 126.594
254226.973 2821073.336 128.594
254226.973 2821073.336 130.594
254226.973 2821073.336 132.594
254226.973 2821073.336 134.594
254226.973 2821073.336 136.594
254226.973 2821073.336 138.594
254226.973 2821073.336 140.594
254226.973 2821073.336 142.594
254226.973 2821073.336 144.594
254226.973 2821073.336 146.594
254226.973 2821073.336 148.594
254226.973 2821073.336 150.594
254226.973 2821073.336 152.594
254226.973 2821073.336 154.594
254228.973 2821073.336 125.911
254228.973 2821073.336 127.911
254228.973 2821073.336 129.911
254228.973 2821073.336 131.911
254228.973 2821073.336 133.911
254228.973 2821073.336 135.911
254228.973 2821073.336 137.911
254228.973 2821073.336 139.911
254228.973 2821073.336 141.911
254228.973 2821073.336 143.911
254228.973 2821073.336 145.911
254228.973 2821073.336 147.911
254228.973 2821073.336 149.911
254228.973 2821073.336 151.911
254228.973 2821073.336 153.911
254230.973 2821073.336 125.541
254230.973 2821073.336 127.541
254230.973 2821073.336 129.541
254230.973 2821073.336 131.541
254230.973 2821073.336 133.541
254230.973 2821073.336 135.541
254230.973 2821073.336 137.541
254230.973 2821073.336 139.541
254230.973 2821073.336 141.541
254230.973 2821073.336 143.541
254230.973 2821073.336 145.541
254230.973 2821073.336 147.541
254230.973 2821073.336 149.541
254230.973 2821073.336 151.541
254230.973 2821073.336 153.541
254232.973 2821073.336 125.254
254232.973 2821073.336 127.254
254232.973 2821073.336 129.254
254232.973 2821073.336 131.254
254232.973 2821073.336 133.254
254232.973 2821073.336 135.254
254232.973 2821073.336 137.254
254232.973 2821073.336 139.254
254232.973 2821073.336 141.254
254232.973 2821073.336 143.254
254232.973 2821073.336 145.254
254232.973 2821073.336 147.254
254232.973 2821073.336 149.254
254232.973 2821073.336 151.254
254232.973 2821073.336 153.254
254234.973 2821073.336 124.697
254234.973 2821073.336 126.697
254234.973 2821073.336 128.697
254234.973 2821073.336 130.697
254234.973 2821073.336 132.697
254234.973 2821073.336 134.697
254234.973 2821073.336 136.697
254234.973 2821073.336 138.697
254234.973 2821073.336 140.697
254234.973 2821073.336 142.697
254234.973 2821073.336 144.697
254234.973 2821073.336 146.697
254234.973 2821073.336 148.697
254236.973 2821073.336 126.325
254236.973 2821073.336 128.325
254236.973 2821073.336 130.325
254236.973 2821073.336 132.325
254236.973 2821073.336 134.325
254236.973 2821073.336 136.325
254236.973 2821073.336 138.325
254236.973 2821073.336 140.325
254236.973 2821073.336 142.325
254236.973 2821073.336 144.325
254236.973 2821073.336 146.325
254236.973 2821073.336 148.325
254238.973 2821073.336 127.795
254238.973 2821073.336 129.795
254238.973 2821073.336 131.795
254238.973 2821073.336 133.795
254238.973 2821073.336 135.795
254238.973 2821073.336 137.795
254238.973 2821073.336 139.795
254238.973 2821073.336 141.795
254238.973 2821073.336 143.795
254238.973 2821073.336 145.795
254238.973 2821073.336 147.795
254240.973 2821073.336 135.221
254240.973 2821073.336 137.221
254240.973 2821073.336 139.221
254240.973 2821073.336 141.221
254240.973 2821073.336 143.221
254240.973 2821073.336 145.221
254240.973 2821073.336 147.221
254242.973 2821073.336 140.629
254242.973 2821073.336 142.629
254242.973 2821073.336 144.629
254242.973 2821073.336 146.629
254244.973 2821073.336 142.119
254244.973 2821073.336 144.119
254244.973 2821073.336 146.119
254246.973 2821073.336 141.685
254246.973 2821073.336 143.685
254246.973 2821073.336 145.685
254248.973 2821073.336 143.258
254248.973 2821073.336 145.258
254250.973 2821073.336 142.763
254250.973 2821073.336 144.763
254252.973 2821073.336 144.315
254254.973 2821073.336 144.010
254192.973 2821071.336 131.632
254192.973 2821071.336 133.632
254192.973 2821071.336 135.632
254192.973 2821071.336 137.632
254192.973 2821071.336 139.632
254192.973 2821071.336 141.632
254192.973 2821071.336 143.632
254192.973 2821071.336 145.632
254192.973 2821071.336 147.632
254194.973 2821071.336 130.115
254194.973 2821071.336 132.115
254194.973 2821071.336 134.115
254194.973 2821071.336 136.115
254194.973 2821071.336 138.115
254194.973 2821071.336 140.115
254194.973 2821071.336 142.115
254194.973 2821071.336 144.115
254194.973 2821071.336 146.115
254194.973 2821071.336 148.115
254196.973 2821071.336 130.640
254196.973 2821071.336 132.640
254196.973 2821071.336 134.640
254196.973 2821071.336 136.640
254196.973 2821071.336 138.640
254196.973 2821071.336 140.640
254196.973 2821071.336 142.640
254196.973 2821071.336 144.640
254196.973 2821071.336 146.640
254196.973 2821071.336 148.640
254198.973 2821071.336 129.095
254198.973 2821071.336 131.095
254198.973 2821071.336 133.095
254198.973 2821071.336 135.095
254198.973 2821071.336 137.095
254198.973 2821071.336 139.095
254198.973 2821071.336 141.095
254198.973 2821071.336 143.095
254198.973 2821071.336 145.095
254198.973 2821071.336 147.095
254198.973 2821071.336 149.095
254200.973 2821071.336 123.368
254200.973 2821071.336 125.368
254200.973 2821071.336 127.368
254200.973 2821071.336 129.368
254200.973 2821071.336 131.368
254200.973 2821071.336 133.368
254200.973 2821071.336 135.368
254200.973 2821071.336 137.368
254200.973 2821071.336 139.368
254200.973 2821071.336 141.368
254200.973 2821071.336 143.368
254200.973 2821071.336 145.368
254200.973 2821071.336 147.368
254200.973 2821071.336 149.368
254202.973 2821071.336 123.356
254202.973 2821071.336 125.356
254202.973 2821071.336 127.356
254202.973 2821071.336 129.356
254202.973 2821071.336 131.356
254202.973 2821071.336 133.356
254202.973 2821071.336 135.356
254202.973 2821071.336 137.356
254202.973 2821071.336 139.356
254202.973 2821071.336 141.356
254202.973 2821071.336 143.356
254202.973 2821071.336 145.356
254202.973 2821071.336 147.356
254202.973 2821071.336 149.356
254204.973 2821071.336 123.489
254204.973 2821071.336 125.489
254204.973 2821071.336 127.489
254204.973 2821071.336 129.489
254204.973 2821071.336 131.489
